# .PCD v0.7 - Point Cloud Data file format
VERSION 0.7
FIELDS x y z intensity
SIZE 4 4 4 4
TYPE F F F F
COUNT 1 1 1 1
WIDTH 1310
HEIGHT 1
VIEWPOINT 0 0 0 1 0 0 0
POINTS 1310
DATA ascii
8.4031057 4.5718842 -5.5529237 5
8.3575544 4.6378813 -5.5511293 6.75
8.4116611 4.6431217 -5.5873485 11
8.3892145 4.7384439 -5.5575547 6.6666665
8.4148922 4.7311964 -5.5401535 6
8.3819151 4.8212461 -5.5776453 8
8.4173403 4.8622088 -5.5319481 7
-6.1554041 4.9823222 -5.5417838 15
8.3832779 4.9274402 -5.5247355 9
8.4205265 4.9379892 -5.5390611 9.1999998
8.4212122 5.0340204 -5.5765414 10
8.4414358 5.1346068 -5.5130692 10.5
8.4528084 5.2608542 -5.5504761 10
8.4549198 5.3542786 -5.5298376 8.25
8.5008392 5.3648548 -5.5339375 7
9.1018257 5.3806319 -5.5817566 8
9.0668716 5.4282308 -5.5836868 8
8.4501286 5.5551634 -5.5206695 8
9.0718689 5.5377879 -5.5976152 10
9.1158304 5.5521636 -5.5644188 7.6666665
8.3883648 5.6592212 -5.5759258 8
9.0508928 5.6439495 -5.5897593 9
9.1212416 5.6645575 -5.5609827 8.5
9.1652689 5.7169471 -5.5377579 11
9.1470909 5.8449926 -5.5316572 9.8000002
9.166995 5.9442143 -5.533402 9.666667
9.1804037 6.1174555 -5.5541101 11
9.2006598 6.1529822 -5.5293312 11
9.2676516 6.9516549 -5.5424504 15
8.664443 8.1771231 -5.5971966 14
8.7386913 8.2270679 -5.5869255 14
8.7550201 8.3972034 -5.5273485 14
8.6790991 8.5912447 -5.5161176 15
9.5151348 8.543294 -5.585619 13
8.6818247 8.6695948 -5.5718813 14
8.7317629 8.6496401 -5.5633621 15
9.4919691 8.6786785 -5.5578756 13
8.7526197 8.8466253 -5.5860677 14
8.8136005 8.8546829 -5.5050945 14
9.5209913 9.0872335 -5.5665116 13
9.5403423 9.1424084 -5.5231895 14
9.4885616 9.544322 -5.524694 14
9.5559464 9.8235407 -5.5541396 14
0.51051176 -0.40257859 -5.4144568 12.666667
0.89609879 -0.41100681 -5.4003968 4
-1.0204651 -0.31641114 -5.4168992 10
-0.90057218 -0.31360829 -5.4707832 4
-0.85870737 -0.33338019 -5.4040132 0
-0.26790953 -0.3048794 -5.4623914 9.75
-0.037846856 -0.32188714 -5.4365759 10
0.069073223 -0.32445177 -5.4636931 10.5
0.13929074 -0.34174404 -5.438694 9.0643339
0.24268937 -0.34339008 -5.440249 9.2386999
0.3690097 -0.35124245 -5.4533811 5.3333335
0.45780993 -0.34893835 -5.4681139 11.125
0.54298228 -0.38215339 -5.4946795 7
0.65746409 -0.36408195 -5.4410043 8.9285707
0.70259792 -0.3428421 -5.4933219 8
0.8737312 -0.37719342 -5.4236383 7.125
1.1282415 -0.36056751 -5.4697351 5.25
1.2588068 -0.35020831 -5.4408751 4.5571427
1.3660412 -0.38574135 -5.4274445 2
1.4512036 -0.33316892 -5.4198685 5.625
1.6373835 -0.31397617 -5.4612427 4.6222224
1.7637169 -0.30732942 -5.4754257 10
1.866159 -0.32019651 -5.4289179 4
2.0071089 -0.30156663 -5.4641042 3.75
2.1220734 -0.30494618 -5.4349165 11
-1.2208576 -0.22625563 -5.438982 10.127778
-1.1470197 -0.22463953 -5.4490056 14.5
-1.0587028 -0.24285457 -5.451323 12.166666
-0.96296918 -0.25936013 -5.4572082 12.8
-0.78857636 -0.26206231 -5.4453859 11.875
-0.65440327 -0.2630282 -5.4228201 7.8333335
-0.58920741 -0.27868184 -5.4663396 10.916667
-0.44098628 -0.27227393 -5.4710026 9.458334
-0.34051377 -0.267344 -5.497016 5
-0.25195855 -0.28202105 -5.4876151 11.4
-0.026251869 -0.2975533 -5.4709773 11
0.053280763 -0.28165594 -5.4738102 9.166667
1.5875572 -0.29305664 -5.4611311 8
1.6585758 -0.28887796 -5.4756894 4.4000001
1.9749216 -0.28305721 -5.4201932 2.75
2.0445971 -0.2930724 -5.4290671 2
2.130743 -0.27157402 -5.4686475 3.2083333
2.2588079 -0.25329185 -5.4484677 0.25
2.3309629 -0.24626875 -5.4616613 0.33333334
2.4563043 -0.26537776 -5.4204082 5
2.5877399 -0.22147632 -5.4459653 0
2.8416214 -0.21243927 -5.4673128 4.5
-1.4107425 -0.12855959 -5.4556098 12.5
-1.3655888 -0.16512139 -5.436192 14.333333
-1.1524144 -0.17268384 -5.4842782 14
2.9568233 -0.18112151 -5.475903 8.0666666
3.2585652 -0.13754082 -5.4844265 4
3.3186274 -0.14778903 -5.4349518 5
-1.7329006 -0.01982522 -5.4139867 13.25
-1.641865 -0.05943596 -5.422596 6
-1.5371907 -0.049584828 -5.4450202 9.5749998
-1.4836816 -0.054737926 -5.4554429 12
-1.3845416 -0.075992346 -5.4040766 8.5
3.1599629 -0.097466201 -5.4973574 12
3.7217374 -0.078593239 -5.4196329 7.5
3.8451903 -0.045562923 -5.4402528 6.2222219
-1.9110495 0.056574106 -5.4300389 0
-1.881427 0.058427572 -5.4373946 15
-1.7323375 0.017052859 -5.4484682 14
3.9906261 0.023640268 -5.4306026 6.6666665
-2.1812885 0.1250166 -5.4013658 2.75
-2.0808973 0.19856644 -5.4055424 11
4.031436 0.12450385 -5.4970474 5
4.1790209 0.11912391 -5.4983783 2.2
-2.5840874 0.27264619 -5.4616494 4
-2.4913497 0.2475743 -5.4023085 2
-2.2583649 0.22080082 -5.4962564 14
4.179667 0.20146085 -5.4275131 8.333333
4.2858801 0.29420745 -5.4817419 2.4285715
4.3384142 0.25082317 -5.4027219 15
-2.6462409 0.3261621 -5.4448142 8.666667
4.3284779 0.33102798 -5.4239731 10
-2.8155632 0.4268699 -5.4771132 3.5999999
-2.6612315 0.42804337 -5.4220123 12.666667
-4.4863853 0.51802337 -5.4588675 4
-3.0425544 0.53293306 -5.4816689 2
-2.9277294 0.52108192 -5.477531 0.5
4.5598636 0.52843243 -5.4749126 6.5555558
4.6575227 0.53237844 -5.4413495 6.416667
-3.1236403 0.63888943 -5.4109535 4
-3.0431745 0.6422382 -5.4555578 4.2738094
4.6493397 0.60923123 -5.423676 4
4.7412105 0.64766705 -5.4451308 7.1944447
-3.2015851 0.76090169 -5.4876876 4
-3.146987 0.73477316 -5.4029479 10
4.844873 0.70436597 -5.4427485 8.5
-3.2121358 0.87474632 -5.4585228 7.3571429
-3.1648483 0.81206244 -5.4784656 7
4.9825621 0.84757382 -5.4730606 9
5.0308223 0.87081885 -5.4281383 8.75
5.1730146 0.89895898 -5.4469066 8.6000004
-3.3207965 0.96232188 -5.4444962 11
5.1450806 0.95119298 -5.4237237 11.375
-3.4462657 1.0445074 -5.4632635 9
-3.3963223 1.0205874 -5.4356813 8
5.1951785 1.0479966 -5.4571609 6.5999999
5.3680367 1.110136 -5.4134054 9
-3.7355583 1.292482 -5.484354 5
-3.6677685 1.2066717 -5.4846597 7.25
5.4958558 1.2305559 -5.4875245 12
5.5452175 1.2693062 -5.4196558 9.5
5.6128674 1.2747759 -5.4708977 8
-3.8343191 1.3812461 -5.4140501 11
5.7771749 1.3625124 -5.480176 10
5.8401842 1.3425653 -5.4426651 10.5
-3.9456568 1.4790734 -5.4418697 11.5
-3.8407774 1.4381671 -5.4572806 11.25
-5.0809817 1.5833 -5.4875755 10
6.0836353 1.5135616 -5.474349 13
6.1783748 1.5579454 -5.498456 10
6.2213044 1.5751717 -5.467968 10
6.3202858 1.5655128 -5.4497919 12
-4.1048975 1.6122224 -5.4067931 11
6.2659736 1.6043619 -5.4733076 11
-4.2455482 1.7422163 -5.4473224 13.5
-4.1294889 1.7052056 -5.4833031 11
6.6544528 1.7960724 -5.4168038 13
-4.3317862 1.829375 -5.4735742 13
6.7633557 1.8657907 -5.4521537 13.668834
-4.5272989 1.9831566 -5.4719214 7
6.8759336 1.9493942 -5.4232731 2
6.9141126 1.9778697 -5.4370937 12
-4.6057086 2.061044 -5.4848986 13
7.0574188 2.0551169 -5.4177327 8.666667
-4.7359614 2.1791368 -5.4739494 14.216667
7.0639315 2.1314616 -5.4492745 5.4000001
7.1715822 2.1242473 -5.42839 14
7.4479771 2.1627502 -5.4363775 11.5
-4.9316564 2.2306228 -5.4706221 13
-4.9930348 2.3882689 -5.4210401 8
-4.8946323 2.3635204 -5.4560165 13.5
8.3255968 2.3286538 -5.4361024 10
-5.1040211 2.5009513 -5.4425712 7
-5.0433521 2.5357125 -5.4679031 14.75
8.9981966 2.5927839 -5.4251342 15
-5.1657872 2.6940434 -5.4154215 9
8.9838858 2.7820766 -5.4892745 15
-5.2246294 2.8683577 -5.4358521 8
8.2746038 2.8425837 -5.4841156 5.6666665
8.3123693 2.8075454 -5.4999018 4
8.2794876 2.937 -5.465858 6.1999998
8.2762604 3.0658202 -5.4524488 3.2
8.3161869 3.0587108 -5.4413738 5.8000002
8.2985229 3.1821389 -5.4537301 3
8.3189392 3.1446936 -5.4208212 7.1999998
-5.3510723 3.2535281 -5.4106846 9
8.2775898 3.2787306 -5.4335098 3
8.3285685 3.236737 -5.4298263 11
8.3188 3.3477249 -5.4753084 3
8.3410053 3.4388578 -5.41995 4
8.3675976 3.582128 -5.4329638 3
-5.9274044 3.9317048 -5.4606199 10
8.356163 3.9541411 -5.4181108 2
8.3412037 4.030726 -5.4034381 2
8.7195091 4.07377 -5.4043999 2
8.8496761 4.1459332 -5.423141 2
9.0688572 4.1934519 -5.4491119 3
9.0029688 4.2331185 -5.4500346 2
8.3342438 4.344059 -5.4906635 5
9.117094 4.4796247 -5.4015145 4
8.4119387 4.7539258 -5.4715571 6
8.4397669 4.8403864 -5.4902987 6
8.4250917 4.9719229 -5.4675927 7.4000001
8.446929 5.042614 -5.4338923 7.25
8.4790421 5.1479754 -5.4509597 7.6666665
8.4661875 5.2474909 -5.4462299 10.4
8.4656343 5.3372679 -5.444376 9.75
8.4675465 5.4693003 -5.4310598 10.5
8.5126162 5.431788 -5.4240808 8
8.4877195 5.5588541 -5.425797 11
8.5053978 5.542861 -5.4285169 14
8.4436235 5.6265702 -5.46556 8
8.5276766 5.6619658 -5.4540696 9.666667
8.5014477 5.7278218 -5.4602466 8
8.4865189 5.8642492 -5.4613805 9
8.5383425 5.8845878 -5.4008102 12
9.1593523 5.8909936 -5.4349823 9
8.4543743 5.9614105 -5.4568391 9
8.5903196 5.990397 -5.4120426 9
8.5581875 6.0206499 -5.4134049 10
9.1692314 6.0345397 -5.4877377 9.666667
9.2242718 6.0704236 -5.4475126 12
9.1840305 6.1528502 -5.4058275 10
9.2156363 6.1867862 -5.4184327 10
9.1716166 6.205122 -5.4754906 12
9.2242699 6.2654867 -5.4274831 11.75
8.4878407 6.3195825 -5.4068193 10
9.2423792 6.3891292 -5.4180436 12
9.2324705 6.4593878 -5.4259834 11
9.2422857 6.5126014 -5.4102783 12
9.2894087 6.8922157 -5.4602985 15
8.7460766 8.7555504 -5.4743886 15
8.856554 8.8167992 -5.4348812 15
8.7628489 9.2652397 -5.4416666 15
8.8450918 9.4723492 -5.4330297 15
9.6941309 9.7976646 -5.4067221 14
0.47477221 -0.4024657 -5.3911943 6.4285712
0.57800812 -0.40862334 -5.3791203 7
0.6714552 -0.40469706 -5.3448906 5.6666665
0.75299859 -0.41485053 -5.3441682 6.5
0.81456727 -0.41794586 -5.3979378 12.333333
0.93668747 -0.41884112 -5.3486786 3
1.0401412 -0.43708789 -5.3118858 4
1.1577101 -0.40469831 -5.3516889 6.5
1.4539906 -0.41021502 -5.3163247 2.5
-1.1784463 -0.31170905 -5.3366547 9.25
-1.0462414 -0.31356713 -5.3418002 12.25
-0.95543563 -0.30740809 -5.3346348 7
-0.75101489 -0.37280542 -5.3200002 4
-0.64962751 -0.31479907 -5.3515224 7.5666671
-0.55493397 -0.32728419 -5.3267617 12.166667
-0.45188549 -0.33093894 -5.3613524 8
-0.34278843 -0.31494689 -5.3383617 12
-0.25234753 -0.32865879 -5.3502316 10.3
-0.020770434 -0.33694336 -5.3963919 4
0.041133706 -0.34271327 -5.3390088 8.2166662
0.10928539 -0.35514867 -5.3339906 10
0.21078154 -0.34288287 -5.3759336 10
0.35758528 -0.36984387 -5.3478961 6.1666665
0.4605408 -0.38049978 -5.3512106 4.4375
0.515414 -0.3773475 -5.3367457 8.985714
0.64569205 -0.39609575 -5.3240871 9
0.93747294 -0.39249885 -5.3706393 8.5
1.0420196 -0.37155414 -5.3912749 5
1.1230147 -0.36969158 -5.3721066 5.6999998
1.2580476 -0.37479371 -5.327714 6.5
1.3075136 -0.33901948 -5.3788967 9
1.4464335 -0.37276483 -5.3245783 7.333333
1.7177248 -0.32816076 -5.3791943 2
1.9655992 -0.31682375 -5.3610396 3.6944447
2.0949292 -0.31125641 -5.361311 1
2.2014589 -0.304986 -5.3864436 6
-1.3594055 -0.21354581 -5.3277674 8.7749996
-1.2423596 -0.2561543 -5.345644 10.214286
-1.1067992 -0.27420735 -5.3786793 15
-1.087903 -0.29710793 -5.3352609 10.666667
-0.95118833 -0.26174825 -5.3776393 13
-0.77568513 -0.27444592 -5.3694415 12.333333
-0.65658659 -0.28628075 -5.3499231 13
-0.57540005 -0.28374964 -5.3676863 11.375
-0.38897845 -0.26090908 -5.3514137 5.25
1.9544562 -0.29779673 -5.38872 2.125
2.038691 -0.29653198 -5.3876104 2
2.3225317 -0.27646136 -5.3365631 1.9285715
2.4306486 -0.27124423 -5.3459935 5.2000003
2.849333 -0.241699 -5.3575826 4.5
2.9632783 -0.23001149 -5.317832 4.5
3.0425677 -0.22615385 -5.3489308 8
-1.5356474 -0.12483016 -5.3960047 0.40000001
-1.4476688 -0.14494772 -5.3864923 11.3
-1.334609 -0.18670738 -5.3623524 14.5
2.75192 -0.1818448 -5.394012 11
2.9235628 -0.13846053 -5.3503575 13
3.733319 -0.1139707 -5.3637409 7
-1.7353861 -0.054400533 -5.3595591 10.375
-1.6682882 -0.040390849 -5.3514047 12.533333
-1.5745153 -0.0804708 -5.3603001 15
3.8211682 -0.054133654 -5.3897123 6.75
3.9604664 -0.025139034 -5.3424721 2
-2.0326385 0.077538371 -5.3426118 14.666667
-1.9457784 0.041025519 -5.3357182 14
-1.8604157 0.029935062 -5.352107 10
-1.7638657 0.044124529 -5.3940077 5.3333335
4.0431328 0.055885345 -5.3432808 2.375
4.1355529 0.059162736 -5.3422632 14
-2.3561957 0.18958974 -5.3018537 4
-2.231142 0.14286985 -5.3573723 4.3333335
-2.1526608 0.12207716 -5.3440118 6.625
4.1625805 0.15082712 -5.3401723 4.2999997
-2.6878479 0.2624948 -5.3005013 4
-2.5907512 0.29054737 -5.3491087 15
-2.4657891 0.2388577 -5.3613811 6.8666668
-2.3956604 0.22665226 -5.3855782 4
4.2666469 0.25456518 -5.3488827 2.25
-2.4355767 0.30347526 -5.3618689 12
4.340847 0.31669092 -5.3359675 6.625
4.4721384 0.38711846 -5.3689775 5
-2.9368117 0.44516975 -5.3110962 2.3333333
-2.8567979 0.4348385 -5.3617921 6.0535717
-2.7844918 0.40700352 -5.3466358 14
4.5441623 0.43302035 -5.3294978 4
4.6012707 0.47703475 -5.3217897 3.5999999
-3.1286652 0.59863931 -5.3181968 3
-3.0286682 0.57153499 -5.3273654 8.2124996
-2.9582584 0.53432661 -5.381084 1.9166666
4.7095642 0.52747273 -5.3092232 5.3333335
-3.1160698 0.65990371 -5.3855758 6.6666665
-3.0632887 0.64220089 -5.3829045 6.9444447
-4.2244649 0.72294009 -5.3537083 4
-3.1736259 0.72789598 -5.3343568 5.5
-3.0985978 0.70602524 -5.3378048 3
4.8475709 0.70842272 -5.308928 5
4.9157133 0.73453462 -5.3326225 12
5.0137281 0.79954898 -5.3238702 9
-3.30159 0.85500985 -5.336946 5.5
-3.2449932 0.84549451 -5.351676 6.5357141
-3.1700928 0.84004748 -5.3604221 9
5.0895548 0.89069629 -5.3576813 10.5
5.1244831 0.87684184 -5.3128886 7.5
-3.4169438 0.96407473 -5.3964262 5.5
5.1618652 0.97039568 -5.3553963 5.25
5.2457218 0.98825812 -5.3284912 11
-3.5141983 1.0998491 -5.3984814 10.75
-3.4389131 1.031111 -5.365725 11
-3.3600283 1.0056797 -5.38588 12
5.1991138 1.060746 -5.3902693 4
5.3349018 1.04977 -5.3877139 8.333333
-4.6815186 1.1339297 -5.3250289 7
-3.6096497 1.1807415 -5.390193 8.3999996
-3.5303714 1.1368616 -5.3780842 9.75
5.5292511 1.1737835 -5.3270388 10
-3.5769413 1.2090834 -5.3913279 10.25
5.5867476 1.2236557 -5.3388534 13
5.6226172 1.245742 -5.3681269 8.666667
5.7157454 1.2701302 -5.3188481 10.5
-3.743258 1.3356861 -5.3662777 13.166666
5.8227177 1.322786 -5.3420978 10.5
6.0057192 1.3925915 -5.3154688 11
-3.9374163 1.4871645 -5.3834777 11.6
-3.8866968 1.4454167 -5.3346076 11
5.9099102 1.413524 -5.3288593 4
-4.0668626 1.538281 -5.3925457 9
6.2681952 1.5565577 -5.3612194 14
-4.3070493 1.6876088 -5.3388476 10.75
-4.1999593 1.6101658 -5.3643799 10
-4.0831871 1.6289558 -5.3807411 10.444444
6.4342203 1.6279271 -5.3918486 12
6.5404015 1.6432873 -5.3243313 11.666667
-4.2569847 1.7641513 -5.3454781 12
6.6509662 1.7630863 -5.3528314 10.777778
6.7055821 1.7744083 -5.314961 11
-4.3458409 1.8654538 -5.365396 13.666667
6.6983495 1.8295379 -5.3092275 4
6.77528 1.8363559 -5.3376741 2
6.8183045 1.8651001 -5.3459558 8
6.867156 1.919843 -5.3382077 15
6.9077368 1.9097946 -5.300106 13
-4.6657677 2.0462852 -5.3888965 11
-4.5662231 2.0082574 -5.3058214 14
6.9256067 2.0352833 -5.3986163 4
7.0786128 2.0442023 -5.3168435 5.5
7.1109118 2.094198 -5.3708725 12
-4.7392068 2.1580768 -5.3127141 13.6
-4.6480393 2.1092534 -5.32517 15
7.1465425 2.1157932 -5.3384318 7
7.434166 2.1139286 -5.3747149 7
7.5440636 2.1553526 -5.3359871 6.5
7.8610568 2.1772828 -5.3500004 7
-4.8450222 2.2942123 -5.3364935 13
-4.7385683 2.2138829 -5.3554578 13.583334
7.2112241 2.2416799 -5.3042488 3
8.241066 2.2553265 -5.3621588 10
-4.9751186 2.3239298 -5.368434 12.5
8.4975023 2.321322 -5.3691492 14
8.5178595 2.325839 -5.3383579 10
-5.0928707 2.5120425 -5.3378406 15
-5.2568793 2.9719441 -5.3127365 10
-5.1361003 2.9170895 -5.3467851 15
-5.3100624 3.0688634 -5.3253694 14.571428
-5.3622112 3.2543399 -5.3165584 9
8.3547421 3.2260389 -5.3757114 4
8.3437958 3.364466 -5.3594055 4.7272725
-5.6679893 3.4275379 -5.3320513 9
8.3590307 3.4444213 -5.3468342 6.5
8.4185705 3.4751925 -5.3161597 7
-5.4329238 3.5751548 -5.3041234 12
8.3641863 3.5352752 -5.3395214 6
8.3741264 3.6484685 -5.3436632 4.5
-5.7514138 3.7620351 -5.3272896 12
8.368206 3.7518024 -5.3366823 6
8.4006996 3.7746403 -5.3220587 6
8.6985359 3.7131596 -5.3311543 2
8.4116163 3.8241391 -5.374702 3
8.9606581 3.8561475 -5.3690705 2
8.3844967 3.9344072 -5.3612804 2
8.4528971 4.0806198 -5.3390203 4
8.4100504 4.1538801 -5.3356419 3
-5.950768 4.2959676 -5.3347349 11
8.3624229 4.249064 -5.3598833 3
9.0661812 4.5080991 -5.38553 3
9.1273022 4.7495146 -5.3329725 5
9.1380472 4.8029189 -5.3186564 4
8.4634285 5.2591052 -5.3791428 8
8.5371189 5.2922506 -5.3797259 7
8.5114813 5.359427 -5.3479309 8.333333
8.5369549 5.4668083 -5.3559113 9
8.5264425 5.5702648 -5.3643656 10.5
8.5332956 5.6426473 -5.3429728 10.285714
8.5456524 5.7395649 -5.3471737 10
8.4987946 5.8233995 -5.3561654 11
8.5427284 5.8113842 -5.3127494 12
8.5773821 5.9686661 -5.3353829 13.333333
8.5710268 6.0710111 -5.3509836 9
8.5454998 6.1978345 -5.3590355 10
8.5480804 6.2570133 -5.330111 11.5
9.2292938 6.2775898 -5.3679581 9.5
8.6381369 6.3289175 -5.3243513 10
8.9271336 6.3400211 -5.311317 15
8.6187019 6.406949 -5.3186965 11
9.2690506 6.4540887 -5.3644586 12.666667
9.2732029 6.5807495 -5.3157377 11
8.5356541 6.6834898 -5.3107381 11
9.0321903 6.6449423 -5.3470836 13
9.289381 6.6341143 -5.3628778 13
9.3172169 6.6803484 -5.3366508 11
9.2806749 6.7146444 -5.3692055 10
9.3180828 6.7696805 -5.3089838 13.5
9.3105726 6.8586869 -5.3122988 12.5
9.3423138 6.959446 -5.3108726 13
9.3505058 7.0737286 -5.3030658 14
8.8383522 8.9592724 -5.3757205 15
9.6404448 9.8504333 -5.3622656 15
9.7559137 9.8683968 -5.3342557 15
9.6043253 10.234269 -5.3699484 15
9.6868877 10.557743 -5.3719864 15
-1.0539542 -0.40521526 -5.2396088 6
0.063804291 -0.4013238 -5.2064075 8
0.16374356 -0.40502143 -5.2782011 8
0.32945916 -0.4175157 -5.2473326 5.5
0.43632087 -0.42147055 -5.2465367 10
0.59526366 -0.40868378 -5.2932258 5
0.68384176 -0.41031289 -5.2738118 7
0.74082881 -0.43569401 -5.2342806 5.9333329
0.95984739 -0.4459812 -5.2255678 6.2916665
1.0541427 -0.43191588 -5.2039185 7
1.1438981 -0.42629454 -5.2370076 3.3333333
1.2416724 -0.43210632 -5.2412367 5.2071428
1.3417662 -0.41617557 -5.2520556 3.75
1.46816 -0.42427278 -5.223618 5.5333333
1.7018944 -0.41031039 -5.2050734 1.2
-1.2389364 -0.3522253 -5.21245 13.75
-1.1633378 -0.35151109 -5.2639656 12.083333
-1.0553997 -0.37057281 -5.2431178 13
-0.98808861 -0.35396978 -5.2963433 0
-0.87539393 -0.3657963 -5.263309 2.6666667
-0.71376067 -0.32749534 -5.2127714 13
-0.6583671 -0.33874375 -5.2285914 10.5
-0.52122784 -0.35110152 -5.213069 9.5
-0.42573354 -0.35949761 -5.2626448 7
-0.35033312 -0.36754572 -5.2385483 11.5
-0.29926214 -0.33923292 -5.2533998 5
-0.13430856 -0.38014394 -5.2159319 10.083334
-0.040090591 -0.39101404 -5.260726 4.875
0.016247883 -0.38584915 -5.2967072 3
0.14453147 -0.37976131 -5.2434559 11.066667
0.25942487 -0.37065622 -5.2134051 3.6666667
0.37312177 -0.38514885 -5.2572255 10.05
0.66483635 -0.37029991 -5.289093 5
1.190534 -0.38774884 -5.2117062 6.5
1.2920165 -0.39539766 -5.296968 6.5
1.3017638 -0.38103795 -5.2752156 6.5
1.4650688 -0.35244 -5.2615833 5.6999998
1.5510637 -0.38198298 -5.2250633 5.9200001
1.6780448 -0.37660819 -5.2442622 4
1.7677517 -0.3694084 -5.2524781 5.25
1.8672299 -0.35006389 -5.2450123 5.4833336
1.9634229 -0.34121808 -5.2594481 2.4674602
2.0649617 -0.34114194 -5.2554402 2.5
2.1567931 -0.34145069 -5.2496853 3.5
2.2437923 -0.32432172 -5.2566357 2.4583333
2.443892 -0.32462502 -5.2530727 7.5
2.5662718 -0.30650133 -5.2538772 7.5
-1.4346563 -0.25312114 -5.2328367 11.066667
-1.3452755 -0.26963833 -5.2498078 10.666667
1.8864813 -0.2864995 -5.2691517 3.5
2.093843 -0.26108134 -5.2847967 2
2.4331558 -0.27281585 -5.2554569 10
2.5274704 -0.2364348 -5.2258148 12
2.6248639 -0.28807187 -5.293323 0
2.7804971 -0.26449752 -5.2059226 7
2.8883722 -0.2228775 -5.2827282 0
2.921442 -0.24279246 -5.2906427 6.75
3.0812888 -0.21701264 -5.2554407 5
-1.7534654 -0.1264611 -5.2140446 7.3611112
-1.695226 -0.10810201 -5.2709198 3
-1.480738 -0.19015718 -5.2739987 15
3.28561 -0.17946529 -5.2468839 7
3.5659924 -0.14001715 -5.2647228 5.5
3.7376924 -0.14569941 -5.2406416 3
-1.73325 -0.065886974 -5.2942662 14.75
3.7055683 -0.073523968 -5.2283521 13
3.9875989 -0.049453557 -5.2451305 7
-2.21119 0.083688736 -5.2039394 14.75
-2.1343112 0.075108051 -5.2129521 15
-2.0698471 0.067545183 -5.2492371 10.333333
-1.9647218 0.013402879 -5.2486615 14.5
4.0617867 0.040057555 -5.2362967 9.833334
-2.4359052 0.17473969 -5.2426338 8
-2.3668864 0.12951088 -5.291996 0
-2.2271228 0.12880385 -5.2961173 14.5
4.1701241 0.12128857 -5.2686677 5.1666665
4.238884 0.19219691 -5.2696624 5
4.4006968 0.19066679 -5.2570901 3.5
-4.9917111 0.28037 -5.2970304 4.5
-2.7699418 0.28912309 -5.2499728 7
-2.679569 0.24636711 -5.2070646 4
4.2393618 0.20453811 -5.2976151 6
4.3473825 0.25302821 -5.2468472 5.25
-4.9381542 0.32176602 -5.2408028 14
-2.9578724 0.37763882 -5.2712197 1
-2.8644331 0.36731088 -5.2154427 3.5999999
4.4687548 0.34581095 -5.2847004 6.5
4.5412817 0.36931667 -5.2751336 8.5
4.6062741 0.35594231 -5.2539258 5
-3.0014551 0.46198219 -5.2049465 3.125
-2.9686508 0.4366636 -5.2229662 3.6071429
-2.895329 0.4061085 -5.2269955 5
4.631506 0.47915858 -5.2305436 8.833334
-5.0203614 0.5879761 -5.2401924 5
4.6716728 0.50852036 -5.2383819 8.916667
4.7312555 0.52800339 -5.2133842 5
4.8747935 0.5551073 -5.2258792 6.6666665
-3.2374651 0.69358373 -5.2632518 4
-3.1248162 0.65467846 -5.2564535 7.625
-2.9845824 0.66408682 -5.2229047 14.333333
4.8614869 0.65995324 -5.2594709 8
-3.2473271 0.74815071 -5.2452507 5
-3.1774576 0.75083005 -5.2239485 5.166667
-3.0931416 0.71164727 -5.2726893 11.5
-4.9424033 0.85469246 -5.2158484 6.5
-4.3813357 0.81478906 -5.2069807 5
-3.3094947 0.81645656 -5.208468 5.1666665
-3.1057169 0.80537105 -5.2379851 15
5.0831494 0.83795738 -5.2519503 6.5999999
-3.4053721 0.92833388 -5.231997 6
-3.3551331 0.96800363 -5.236618 9.5
-3.2896833 0.9141565 -5.280221 6.0357141
5.2210889 0.90620703 -5.2130675 11
-3.5474064 1.0692707 -5.2428007 6.9166665
5.3654237 1.0483886 -5.2886968 8
5.4151959 1.0708051 -5.2479725 10
-3.5870988 1.1800934 -5.2403994 9.1428566
5.6255794 1.1774884 -5.2213736 12
-4.719357 1.2534187 -5.2673731 9
-3.6657834 1.2431655 -5.232852 11.7
5.670783 1.2320175 -5.2871723 12
5.757596 1.2479606 -5.2854624 10
-3.9229727 1.377269 -5.2673678 9
-3.8332367 1.3665466 -5.2390509 7.5
6.0210309 1.3729292 -5.2590609 10
6.1562886 1.4565973 -5.2603168 9
6.2881789 1.4977514 -5.2208405 13.00675
-4.0283456 1.5647511 -5.2434549 11.25
6.2589712 1.5273794 -5.2687197 8.5
-4.1190982 1.657142 -5.2459283 12.083333
6.5257621 1.6778501 -5.2485685 4
-5.2934742 1.7751901 -5.2393889 11
-4.312623 1.7407905 -5.2986941 10
-4.2560358 1.7399871 -5.2207117 12.5
-4.4183731 1.8025615 -5.2186203 11.25
6.8761477 1.8722347 -5.242322 8.666667
-4.5181184 1.9945717 -5.2891121 13
-4.4725308 1.95358 -5.2766671 12
6.9988799 1.9718661 -5.2928095 0
-4.6349268 2.0346398 -5.2770333 13.666667
-4.5386376 2.0208054 -5.2851324 14
7.1427355 2.0492558 -5.2503886 8.5
7.2030606 2.0430017 -5.2262349 3
-4.8291941 2.1700003 -5.26719 12.666667
-4.6722736 2.13293 -5.2591138 15
7.3857007 2.1334453 -5.2358432 14
7.4016819 2.1133676 -5.2155814 4
7.5213466 2.1139827 -5.2178049 14
7.8160844 2.1761341 -5.2631845 14
8.2481136 2.1806381 -5.2102532 12
-4.7891793 2.2340727 -5.2752571 14
8.2485561 2.260989 -5.2791367 3
-5.1852551 2.5826857 -5.2350955 13
8.957365 2.5168464 -5.2999959 15
-5.1681919 2.6018617 -5.217824 14.4
8.9559288 2.6227298 -5.2418113 1
9.0633879 2.7062325 -5.230032 15
-5.263011 2.8817272 -5.2018466 8
-5.3849874 3.262568 -5.2367144 9
8.3317127 3.3231506 -5.2936573 2
-5.4692178 3.5891862 -5.2320905 12
8.3616314 3.5284529 -5.2559004 2.5
8.4036856 3.5937669 -5.2861462 4
8.3810949 3.6387532 -5.2863045 4.3333335
8.4096212 3.6826916 -5.2658587 3.5
8.4276991 3.7377722 -5.2425098 5.375
8.3816338 3.8065894 -5.2924852 5
8.4217653 3.847055 -5.2423868 4.5999999
8.42132 3.9247746 -5.2560477 5.5999999
8.6509914 3.9230485 -5.2143593 2.5
9.0567951 3.9353931 -5.2808013 2
8.3970451 4.0119953 -5.2178736 8
8.4402761 4.0330892 -5.2358255 6
-5.956068 4.1702824 -5.2723155 13
8.4315071 4.1584253 -5.253202 9
8.8796921 4.162488 -5.2154512 3
8.9114199 4.1126246 -5.2499785 3
9.0143404 4.1287317 -5.2996097 3
8.4728241 4.2508149 -5.2228503 7
8.5987577 4.2881098 -5.293622 3
8.4742584 4.3675041 -5.2876501 4.5
8.4363966 4.4303036 -5.2561603 4.75
9.0895519 4.4289532 -5.2352099 4
-5.9841566 4.6779509 -5.2178917 12
8.4923134 4.64781 -5.2134895 5
8.4337034 4.7235813 -5.2351336 5
8.8763781 4.8039579 -5.2374754 4.5
9.1930599 5.0989032 -5.2388806 5
9.2344484 5.0712309 -5.2084556 6
8.5212994 5.542222 -5.2782264 10
8.5585966 5.6504612 -5.2658863 9
8.603837 5.7896051 -5.2868156 9
8.583725 5.8501334 -5.249474 12.333333
8.5728397 5.9350953 -5.2717361 11
8.6433783 5.9616833 -5.2254353 9
8.5796423 6.0312629 -5.2461119 11
8.6178579 6.0711193 -5.2397208 10
8.5752792 6.1543608 -5.2661343 12.5
8.6132889 6.2545891 -5.2464061 13
8.6420021 6.3621068 -5.207757 12
8.6378288 6.4259682 -5.2597723 12
8.5943918 6.5641561 -5.2885041 11
8.5864582 6.6651292 -5.2413092 11
8.6483641 6.6108198 -5.203229 14
8.7018547 6.7083521 -5.2286162 11
9.3162346 6.7053905 -5.2599406 11
8.6757584 6.8153038 -5.2130156 12
9.348876 6.8746185 -5.2166634 12
9.3437796 6.9295321 -5.2740827 13
8.5997171 7.0942445 -5.2074375 12
9.3517151 7.0367594 -5.2391787 13
9.3861532 7.1449456 -5.2631364 12
9.3619881 7.3263836 -5.2113476 13
9.4204149 7.4222836 -5.2111278 14
8.9490185 9.461731 -5.2959042 15
0.8980667 -0.50143719 -5.1087232 5.1666665
-1.2181662 -0.43805802 -5.1242337 11
-1.173625 -0.41533983 -5.1577787 13
-1.0851182 -0.41064021 -5.1962705 2
-0.95727783 -0.46133679 -5.1598959 3
-0.16197269 -0.42395407 -5.134285 10.5
0.17360991 -0.40664354 -5.1554999 10.666667
0.29917115 -0.4485921 -5.1183543 5
0.36109474 -0.44431853 -5.1123753 5.5
0.41646212 -0.43343922 -5.1542592 10.071428
0.55804819 -0.45354456 -5.1348276 7.5
0.67289382 -0.45271626 -5.1606417 6.4666662
0.74743915 -0.45981908 -5.1487522 7.7916665
0.85174125 -0.45781836 -5.1394725 5.9611111
0.92057192 -0.47240233 -5.1259704 12
1.0348756 -0.4565309 -5.1218181 6.8333335
1.1532984 -0.44212383 -5.1524606 5.3666668
1.2520552 -0.4512471 -5.155736 6.25
1.3314824 -0.44831645 -5.1208825 4.625
1.4093624 -0.4429495 -5.1243253 5.3333335
1.5596378 -0.42487216 -5.1360316 6.6528854
1.6433651 -0.42978895 -5.1463904 6.3000002
1.7462726 -0.41368353 -5.1130881 5.9666667
1.858107 -0.42709193 -5.1288738 3.8333333
1.9104149 -0.40561342 -5.1043406 5
2.0005059 -0.40722626 -5.1169896 0
-1.4595121 -0.3075771 -5.1306052 10.75
-1.3348789 -0.34029579 -5.1544366 11.666667
-1.247221 -0.3725782 -5.1420169 14.133334
-1.1690339 -0.38772941 -5.1843433 8
-0.91066927 -0.36057138 -5.1284099 13
-0.81677073 -0.32334691 -5.1812658 13
-0.75175095 -0.32454896 -5.1801558 14
-0.61556339 -0.351861 -5.167016 12
-0.55354846 -0.36878598 -5.1567965 8.7250004
-0.47244442 -0.37109709 -5.135437 10.975
-0.34457222 -0.37310275 -5.1342835 12.333333
-0.2125553 -0.35734069 -5.1543808 8
-0.16648144 -0.38657409 -5.146349 12.8
-0.055214882 -0.38328269 -5.1545873 7.4300003
0.0049164384 -0.37895775 -5.1765432 11
0.11427283 -0.38916826 -5.1316328 8.5
0.40575522 -0.38701725 -5.12324 11
0.64256477 -0.38844037 -5.1604028 10
0.9628467 -0.38870311 -5.1975975 8.5
1.6978035 -0.38125491 -5.1809783 5
1.7663361 -0.38889533 -5.1929045 3.75
1.8867594 -0.37832084 -5.1537251 5.1666665
1.9524653 -0.38188767 -5.1658783 2
2.0563974 -0.3765654 -5.1380711 4.0357141
2.1773024 -0.35035071 -5.1736984 9.25
2.2882874 -0.33434033 -5.176404 1
2.3565207 -0.34769586 -5.1355658 5.5
2.4245262 -0.33176583 -5.1208506 3.40625
2.7458384 -0.30468816 -5.1333842 3.2
-1.521649 -0.26548374 -5.1516132 12.4
-1.4332081 -0.26625425 -5.1778812 9
2.7612817 -0.26601776 -5.1756115 0.6380952
2.8330517 -0.25171727 -5.1623211 8
3.2158864 -0.22783802 -5.1362767 4.5
3.3061182 -0.2311306 -5.1561933 10.5
-1.7478762 -0.17540909 -5.1283708 9.229167
-1.6641676 -0.17902493 -5.1164861 15
3.3906829 -0.10952775 -5.1816874 14
3.4261146 -0.19349456 -5.1810751 5
3.750422 -0.1712082 -5.1849847 1
3.8962951 -0.1057125 -5.1962829 5
3.9190586 -0.1002357 -5.1745448 10
-2.0601401 -0.0012345612 -5.1805768 2
-1.9686048 -0.070663415 -5.184855 5
3.8664289 -0.035788342 -5.1440859 15
3.9563227 -0.022389889 -5.1159382 4
4.0686612 -0.023852468 -5.139267 1
4.1337171 -0.022309124 -5.1101599 6.5
-2.3495169 0.099189691 -5.1659541 8
-2.2274218 0.034155011 -5.1188807 15
-2.128227 0.020199686 -5.1697121 4.8571429
-2.0827143 0.0026831627 -5.1762829 2.5999999
4.09162 0.097245455 -5.1420269 4
4.13801 0.040829301 -5.136013 1
4.2326889 0.097989261 -5.1880102 2.4000001
-2.6559477 0.19715869 -5.1425881 4
-2.4103014 0.10101055 -5.1252251 6
-2.7410028 0.25628209 -5.1249447 9
-2.6561143 0.24652267 -5.1845922 5
-2.5775862 0.22333653 -5.1277733 0
4.4265003 0.25101435 -5.1488895 8.75
4.4740028 0.31073818 -5.1251335 9
4.5257406 0.37136146 -5.1327314 3.55
4.6169028 0.4138613 -5.1316733 7
4.7133794 0.49780637 -5.185955 10
-3.0418456 0.55148065 -5.1063523 5.3333335
4.7723532 0.56190902 -5.1642895 5
4.8022799 0.59966946 -5.1892128 11
-3.1571121 0.68000114 -5.1427526 9
-3.3149498 0.77154136 -5.128336 5
-3.2232707 0.73414254 -5.1065083 5.1333332
-3.1894789 0.75281799 -5.1865249 7
4.9889827 0.73856592 -5.133637 5.6666665
5.0358071 0.72359627 -5.1115985 8.833333
5.1226606 0.71358067 -5.1388993 8
-3.3341033 0.89439809 -5.1395793 10
-3.2632558 0.83460689 -5.1328316 7.5
5.1596155 0.83102643 -5.1460166 9
5.2295442 0.89550257 -5.1830249 8.6000004
5.3115044 0.87692201 -5.1726074 9
-3.3458812 0.95462626 -5.1624327 9.166666
5.2405138 0.90393829 -5.1703124 8
5.3221445 0.93461525 -5.1458855 10.5
-3.4165227 1.0673231 -5.1717167 10
5.4312425 1.0019693 -5.1058159 9
5.5538745 1.0301299 -5.1197753 10
-3.5291414 1.1387377 -5.1625729 7.666667
-3.4992785 1.1350677 -5.1572933 13
5.580812 1.1306833 -5.1706004 9.666667
5.6414175 1.1368592 -5.1209393 9
-3.7356071 1.2823761 -5.1586943 9.833334
-3.6606901 1.2610726 -5.1860371 9.333334
5.6187716 1.2036394 -5.1891985 8
5.8601584 1.257061 -5.1535707 11.666667
5.9221959 1.2624187 -5.1008391 11
-4.8109155 1.3384864 -5.1510205 8.5
-3.8738065 1.3588723 -5.1319985 8.6000004
-3.7496114 1.3007755 -5.1536326 12.25
6.0252752 1.3078991 -5.1129832 3
-3.9218192 1.4633441 -5.1095238 12
-3.8823476 1.4588056 -5.1352568 12
6.2553735 1.448722 -5.1603341 10
-4.0611129 1.5698123 -5.1637468 13
6.3484797 1.5144734 -5.1928058 10
6.4405532 1.5433871 -5.1528316 12.666667
-4.1707726 1.6475266 -5.1079168 13
-4.0986319 1.6332998 -5.1694627 6
6.589324 1.6253352 -5.1807485 12
6.7053852 1.6990221 -5.1063962 10
6.8402252 1.7688737 -5.1604247 9
-4.3806133 1.8335558 -5.1210532 14.333333
6.9759936 1.8715016 -5.1405921 4.3333335
-4.5318265 1.9791775 -5.1647401 11.666667
-4.4710078 1.9365634 -5.1917262 13
6.8633838 1.9279509 -5.1930199 2
6.9620318 1.9079868 -5.1860719 0
7.03549 1.9097211 -5.1528225 7.5
-4.7102137 2.0742927 -5.1170936 11.5
-4.5300055 2.0346565 -5.1641622 13
7.1626348 2.0287752 -5.1562424 12.5
7.3333592 2.0744703 -5.1879458 14
7.7252202 2.099617 -5.1931233 7
-4.8443804 2.1442969 -5.1496935 13.25
7.2140193 2.1471474 -5.1194415 3
7.8135104 2.1665828 -5.1927543 11
8.3244047 2.1814859 -5.1251988 2
-4.754631 2.2256064 -5.118546 15
8.63132 2.2366202 -5.1910906 6
-4.9367485 2.3421957 -5.1360307 12.666667
8.9784136 2.3220661 -5.1516767 12
-5.0530853 2.4833288 -5.1737466 15
-5.1274495 2.5514889 -5.1956558 11
-5.0636363 2.5409389 -5.157763 14.5
9.0910435 2.5618598 -5.1259575 15
8.9721403 2.7326133 -5.1915588 1
-5.1487317 2.8484387 -5.1199961 15
-5.8228812 3.1761637 -5.1151772 8
-5.3566895 3.1203902 -5.1300921 15
-5.4004698 3.2829401 -5.1355438 11
-6.0071764 3.3443856 -5.1491923 15
-5.9137201 3.5602214 -5.1235437 11
-6.0632315 3.6445189 -5.166182 11
8.4116583 3.7540994 -5.1717467 4
8.4402885 3.8464189 -5.168087 3
8.465889 3.9603369 -5.1685295 4.5
8.4652252 4.0768676 -5.1730976 6.1999998
8.4713392 4.1358418 -5.1762772 7.5
8.5255384 4.1309433 -5.1155095 3.5
9.1334772 4.1594429 -5.1251497 3
8.4801207 4.2485037 -5.1383333 6.1999998
8.5311317 4.2161894 -5.1298237 7
8.4781218 4.3695273 -5.1459494 7.25
8.5084887 4.3228769 -5.1215773 8
8.7269068 4.3099127 -5.1234298 4
-5.9602051 4.4683595 -5.1834922 14
8.5149765 4.4429049 -5.1244164 8
9.1669617 4.4615674 -5.1461515 4
8.5365267 4.5458236 -5.1334233 9.333333
8.4912472 4.6587558 -5.1619463 5
8.5294647 4.6463881 -5.139286 7
-5.9831476 4.7930651 -5.1058154 15
8.5320969 4.7935767 -5.1043873 9
9.1572428 4.7375107 -5.1600056 5
8.5378838 4.8965049 -5.1552305 6.5
8.4768133 4.9924059 -5.1846423 6
8.5372906 4.9139967 -5.1086216 6
-6.0346937 5.099966 -5.1900153 13
8.5099716 5.2694979 -5.1297107 7
8.5359325 5.3865924 -5.1350055 10
9.2654009 5.4034863 -5.1494818 6.5
8.6102114 5.8837242 -5.1946206 15
8.6443062 6.0127964 -5.1480517 10
8.650569 6.1466508 -5.165626 11
8.6184702 6.2905426 -5.1854267 10
8.6420717 6.3214054 -5.1624374 12.25
8.706295 6.3396134 -5.140131 10
8.6549778 6.44346 -5.1577506 12
8.6394253 6.5599718 -5.1518393 13.5
8.6654854 6.6513963 -5.1456356 14
8.6916428 6.7357779 -5.117095 15
8.6864395 6.8673306 -5.1895628 11
8.6749048 6.9723954 -5.1692882 12
8.6359739 7.0557289 -5.137352 12
8.7163181 7.0366378 -5.1115751 15
9.3497648 7.0176878 -5.1989455 12
8.7521849 7.1037364 -5.1248021 12
9.3794241 7.1238203 -5.1980767 11
9.4043827 7.1494498 -5.1384768 12
8.7487364 7.2754993 -5.1039634 13
9.3963652 7.2455368 -5.1920586 13
9.3802423 7.3005819 -5.1884236 14
9.4531298 7.3802328 -5.1397324 13
9.3986273 7.4968038 -5.1711679 15
9.4188213 7.443233 -5.1581507 14.5
9.4889536 7.6405406 -5.132515 13
-1.1331948 -0.50340116 -5.0122752 15
-1.0934649 -0.53360319 -5.0094762 8
0.55269128 -0.50136447 -5.0375466 7
0.76780373 -0.51170045 -5.0565376 10
0.80804318 -0.51224971 -5.0043974 5.5
0.9617058 -0.51608664 -5.0525937 7.9000001
-1.2494017 -0.46726069 -5.0230393 14.333333
-1.1279011 -0.43390918 -5.0912352 10.5
-1.0046587 -0.47766709 -5.0597906 14
-0.85399866 -0.42422676 -5.0792303 11.5
-0.6926778 -0.43378526 -5.0730486 2.5
-0.54082686 -0.40591052 -5.0334549 10.916667
-0.33939219 -0.40031719 -5.093257 8
-0.24518406 -0.42966318 -5.038106 8.333333
-0.15290473 -0.41348928 -5.0565124 7.25
-0.045143645 -0.44733107 -5.0390835 12.048312
0.039155032 -0.4275558 -5.0525951 10.333333
0.11335823 -0.47580934 -5.0478072 12
0.23620543 -0.4353565 -5.0608263 9.75
0.35166508 -0.48431736 -5.0236568 7.5
0.43419716 -0.44673872 -5.0455122 9.75
0.52124465 -0.45029312 -5.0545073 8.1999998
0.65893024 -0.47834831 -5.0320497 10
0.88086605 -0.45974511 -5.0587063 8.3000002
0.94340277 -0.4871648 -5.071641 8.25
1.0610378 -0.48310876 -5.031754 7.5
1.1816659 -0.45249701 -5.0974712 6.4000001
1.2181967 -0.49081004 -5.0645475 3.5
1.349015 -0.42732048 -5.0928893 2.5
1.4471289 -0.45393294 -5.0684438 5.25
1.5376474 -0.45856696 -5.0914459 3.6785715
1.6826143 -0.45511007 -5.0334349 7.5
1.7965099 -0.40441203 -5.0821195 3
1.8686401 -0.4372226 -5.0523543 7
1.9733459 -0.41978681 -5.0300422 10
2.0479875 -0.43240395 -5.0362668 3.2900002
2.2467539 -0.48127422 -5.0203333 5
2.303792 -0.40840507 -5.0582056 0.66666669
2.6149204 -0.45565447 -5.0085316 9.3999996
-1.4403657 -0.39764524 -5.0406342 15
-1.3638005 -0.35363546 -5.0618758 12
-0.79536623 -0.39803505 -5.0058818 14
-0.63862002 -0.37788847 -5.0461283 13
-0.55190235 -0.37274945 -5.0529275 11.333333
-0.48464197 -0.38086176 -5.01754 13.5
-0.39134181 -0.3965807 -5.0310154 12
-0.2431749 -0.38832521 -5.0963221 13
-0.16568944 -0.38062614 -5.0511022 12.5
0.13546169 -0.38689959 -5.0540543 8
1.9512957 -0.37227798 -5.0933943 4
2.0617332 -0.37203607 -5.0792499 3
2.1213984 -0.39167926 -5.0430121 2.3333333
2.2387204 -0.35347533 -5.0460262 3
2.3409677 -0.36332899 -5.0325294 2.8
2.4253023 -0.35732785 -5.0468817 3.0666666
2.539999 -0.32788771 -5.0495501 1.7291666
2.6947274 -0.33531398 -5.0380993 2
2.7622902 -0.3043189 -5.0180354 0
2.8614991 -0.30029678 -5.0569763 5.5
3.0137644 -0.30638525 -5.0098262 6
-1.8299758 -0.23259228 -5.0358143 6.25
-1.7877444 -0.236302 -5.019794 2
-1.6438348 -0.23514473 -5.0665574 13
-1.586082 -0.27311242 -5.0688658 12.625
2.7593575 -0.29424337 -5.0548878 7
2.8286026 -0.27206528 -5.0748773 12.5
2.9704921 -0.29512477 -5.0493078 4.75
3.0496533 -0.2696898 -5.066855 6.6388893
3.1699111 -0.24278975 -5.0628042 0
3.2096593 -0.26480141 -5.0166435 7.5
3.3498204 -0.22863853 -5.0522485 8.4444437
3.463048 -0.20950931 -5.0353436 4
3.668354 -0.20788503 -5.0207596 10.5
-2.0443404 -0.11606498 -5.0242805 2
-1.919657 -0.12806642 -5.0617499 14.375
-1.7616022 -0.18045333 -5.0960922 3.3
3.6392479 -0.19595468 -5.0502234 6
3.7007871 -0.14846992 -5.0719266 4.3333335
3.995019 -0.11638749 -5.0622172 2
-2.2291086 -0.024998903 -5.0046782 14.25
-2.0880425 -0.048612505 -5.0600824 11.5
-1.8735522 -0.098027468 -5.0535245 10
4.0840969 -0.031909972 -5.0204768 5
-2.4160471 0.090311319 -5.0686646 3
-2.3037069 0.020554781 -5.0074043 10
-2.1605957 0.022481203 -5.0358038 11
4.1943359 0.043614388 -5.066762 3.25
4.2127128 0.073354661 -5.0813293 5.1666665
-2.441958 0.12935901 -5.0301895 13.5
4.265255 0.11668184 -5.0323582 5
4.3573861 0.17786247 -5.0479507 5.1875
-2.8245625 0.26861781 -5.019918 2
-2.750988 0.29175138 -5.0371609 0
-2.6946802 0.20961285 -5.03299 1.75
4.4851418 0.269328 -5.0333304 6
-2.9210968 0.38586855 -5.0301576 0.2
-2.8652406 0.34881651 -5.0076923 7.4285717
4.6187201 0.35822666 -5.0227528 5
-3.0056562 0.48759079 -5.0135317 10
-2.9447069 0.43148917 -5.0766997 5.5833335
4.6821179 0.40919572 -5.0728512 5
-4.9274426 0.5159657 -5.0560369 6
-4.8961306 0.53457499 -5.0160632 15
-3.0517151 0.55886298 -5.0724406 10.111111
-2.989562 0.50147074 -5.0273376 3.5
4.7968225 0.53327656 -5.0606165 8
4.8888893 0.56317437 -5.0382967 7.6666665
-3.1231809 0.67673022 -5.0110412 5
4.9667277 0.6469093 -5.0367894 12.6
5.0401487 0.66386116 -5.0361443 7.2375002
-3.2152052 0.74490672 -5.005312 9.833334
-3.1898832 0.73514104 -5.0997138 7
5.0520625 0.71406162 -5.0941105 5.75
5.1712217 0.77592075 -5.0400429 9.5
-3.3092983 0.84953463 -5.0604362 10
-3.2704275 0.84297502 -5.0996976 6.125
-4.6791782 0.92368323 -5.0904512 6
-3.3729692 0.91219169 -5.0211849 6
5.3487902 0.93597978 -5.0946479 7
5.4283891 0.96785599 -5.0355563 11.333333
-3.5136795 1.0156789 -5.0974503 7
-3.4312944 1.0176282 -5.0412621 10.527778
-3.3916268 1.0664119 -5.0233479 4
5.5176163 1.030354 -5.0137138 10
-3.522948 1.1162475 -5.031363 10
-3.497648 1.1221865 -5.0197244 8.333333
5.6285477 1.1022868 -5.0817771 10
5.7951255 1.1961846 -5.0521841 12
-3.6594572 1.204949 -5.0222902 9.25
5.7908812 1.2132082 -5.0987487 13
5.8953624 1.2327471 -5.0764441 12
5.9415689 1.2520874 -5.0911474 8
6.0134406 1.2914592 -5.0019007 15
-3.838207 1.3841938 -5.0232372 9.333334
-3.7504458 1.3355925 -5.0462751 7.5
6.1737018 1.3779861 -5.0123911 9
6.2451968 1.3875248 -5.0690026 3
-4.0213938 1.4544892 -5.0120153 10
-3.9438353 1.4580266 -5.0298004 13
-3.8794117 1.4529092 -5.0741034 14
6.3776717 1.4212302 -5.0276031 11
6.4260197 1.4854108 -5.0351071 12
-4.0851851 1.5356066 -5.0719457 10.791666
6.533288 1.5307027 -5.0578747 12
6.666337 1.5943828 -5.0493021 7
-4.0705309 1.621769 -5.0060601 11
6.725657 1.6345992 -5.0427966 13
6.8021946 1.6828752 -5.0075402 11
-4.2963486 1.7992194 -5.0746708 14
6.7411184 1.7057755 -5.0821133 0
6.9752717 1.7701343 -5.0034032 12
-4.5212054 1.8266909 -5.0552969 12
6.9326591 1.803004 -5.0773139 10.5
7.0240264 1.8367903 -5.0160084 13.5
-4.6484137 1.9993029 -5.0891433 6
-4.5053158 1.9607373 -5.0111885 14.25
-4.4778013 1.940977 -5.0633936 14.125
7.0612831 1.9223714 -5.0817013 14.5
7.1925735 1.9555827 -5.0366154 0
7.2024093 1.988863 -5.0091176 12
7.272686 2.0226855 -5.0934834 14
7.9473562 2.0873055 -5.0531712 7
-4.7436957 2.1907644 -5.0859261 15
7.786809 2.1388431 -5.0573435 14
8.0465584 2.1395802 -5.0606399 6.5
8.6067266 2.1957579 -5.0933394 12
-4.7661304 2.2533355 -5.0744081 14
8.5899172 2.2503943 -5.0993609 3
9.0140476 2.3244109 -5.0221558 12
9.0240889 2.464766 -5.0202813 5.6666665
-5.1339197 2.5200768 -5.0616817 15
9.0178099 2.5215569 -5.0043001 14
9.0519638 2.628612 -5.0266566 12
-5.5388794 3.0228994 -5.0272861 8
-6.0277147 3.3089883 -5.0426884 15
-5.7613153 3.3829341 -5.010705 10.666667
8.4925137 4.2674389 -5.081707 5.5
8.5319147 4.373179 -5.0760498 5.75
8.5415592 4.4563408 -5.0367966 5
8.7419958 4.4818258 -5.0850186 5
8.5271473 4.5486269 -5.059207 7
8.561717 4.663919 -5.0411773 7.5
8.8909349 4.6569157 -5.0724268 5
8.5713959 4.7418637 -5.0369563 9.666667
9.2039433 4.7413511 -5.0877419 5
8.5667229 4.8406687 -5.05409 9.75
8.9812307 4.8916097 -5.0379114 6
8.5767965 4.9166508 -5.0041428 8.5
9.0795307 5.0467896 -5.0173678 6
9.2149038 5.0525184 -5.0729156 6
8.5595036 5.1842308 -5.0704956 7
8.6058226 5.1196718 -5.0172329 10
8.7210588 5.1838484 -5.0840206 6.5
8.6311359 5.2122488 -5.0351286 7.5
8.612937 5.471879 -5.0106368 8
8.5546694 5.55722 -5.0346985 8
8.6605806 5.5334797 -5.0103278 9
9.3439388 5.742753 -5.0289488 7.5
9.3850374 6.1251087 -5.000988 9
8.6338501 6.2285142 -5.0789027 12
8.6464415 6.3854342 -5.0998011 12
8.7186708 6.4279947 -5.0976896 11
8.7160168 6.5507135 -5.087038 12
8.6821861 6.6812468 -5.0745144 12
8.6944885 6.7493415 -5.0656586 12.5
8.7505074 6.7667661 -5.0670118 12
8.6787729 6.8205185 -5.0955238 15
8.7346601 6.862494 -5.0456028 12.25
8.7244062 6.9159536 -5.0598078 14
8.7186871 7.0298786 -5.0615196 14.5
8.7439852 7.1095371 -5.0445738 15
8.7779455 7.3151636 -5.0563846 12
8.6868677 7.4788918 -5.0236521 13
8.7541265 7.4129419 -5.0381975 13
9.3885412 7.4478502 -5.076314 13
8.6633625 7.5388703 -5.093555 13
8.820219 7.552084 -5.0098476 13
9.4425764 7.5051165 -5.0849934 13
9.4700394 7.6086555 -5.0142474 13
9.4943256 7.7840357 -5.0656085 14
9.4664116 7.8383489 -5.0765796 14
9.5362339 7.8762817 -5.0163937 14
9.5151787 7.9424419 -5.0778141 15
8.7236462 8.0456505 -5.0141768 14
-1.3652096 -0.50804895 -4.9487062 4.6666665
-1.1492484 -0.50981605 -4.9400406 12.5
-1.0450583 -0.53087229 -4.9448514 2.4166667
0.4614414 -0.51361227 -4.9251132 7.3666668
0.64270484 -0.50607246 -4.9364729 9.6999998
0.70822775 -0.50809312 -4.9625912 6
0.81525707 -0.51928598 -4.9517865 6.5833335
0.94876498 -0.50950313 -4.987113 8
1.0179757 -0.5319373 -4.9647703 10.75
1.114476 -0.52770078 -4.9615197 6
1.2774253 -0.51599884 -4.9073796 7
1.3507156 -0.50965834 -4.9128466 7.416667
1.4824823 -0.54142261 -4.9285092 2.5
1.5759352 -0.54335761 -4.9397159 2.2
1.6290095 -0.50542736 -4.9026732 5.5
1.7493072 -0.5408355 -4.9483957 2.5
1.8677725 -0.51976615 -4.9233098 3.0777779
2.0356064 -0.51015896 -4.9407063 3.0333335
2.1227498 -0.55109274 -4.9096813 0
2.3379633 -0.50970638 -4.9572577 2.5
-1.4085377 -0.4311713 -4.9756069 4.9037037
-1.3396288 -0.46813583 -4.947576 14.055554
-1.2988111 -0.48028147 -4.960495 15
-1.0297533 -0.4702673 -4.9528236 9.5
-0.94409919 -0.44823313 -4.9803071 14
-0.77597612 -0.49775368 -4.9569478 2
-0.65372461 -0.44074097 -4.9940038 5
-0.52341425 -0.42363063 -4.9337163 8.5666666
-0.3995744 -0.40541375 -4.9687042 13.5
-0.24386367 -0.43745154 -4.9680614 8.25
-0.15721031 -0.46539867 -4.9359398 8.5
-0.060690191 -0.4371866 -4.9722891 13
0.086513929 -0.48719835 -4.953989 9.75
0.16873401 -0.46255779 -4.9532361 9.833333
0.25634876 -0.48064521 -4.9378839 5.2999997
0.44217795 -0.48547205 -4.9382157 9.5
0.5419631 -0.48078188 -4.9531927 9.666667
0.69493151 -0.48510075 -4.9836974 8.5
0.75233692 -0.47792947 -4.9345121 5.75
1.2212521 -0.49764958 -4.9543152 5.6666665
1.3161366 -0.47906238 -4.9606762 8.5
1.4208509 -0.48220652 -4.9775248 6.5
1.5285362 -0.4777011 -4.9500499 6
1.8630692 -0.4397887 -4.9531045 3.6666667
1.9598987 -0.45583653 -4.9418178 2.4000001
2.0207634 -0.48381561 -4.92695 2.25
2.1512086 -0.43070483 -4.9704118 12
2.2522216 -0.47159359 -4.9320097 6
2.4326966 -0.40475833 -4.9731417 1.2
2.5927546 -0.48774391 -4.9347038 5
2.857234 -0.42938221 -4.9510899 11
-1.7433448 -0.30155432 -4.9468307 13
-1.6434433 -0.3416543 -4.9176354 9
-1.5127003 -0.37608063 -4.9634304 7.8000002
-0.7375024 -0.39065647 -4.9568424 13
-0.69085515 -0.39726371 -4.9682512 13
-0.47260424 -0.36943221 -4.9743209 6
2.471879 -0.3748157 -4.9429135 7
2.5834036 -0.34272194 -4.9849434 1.5
2.6880562 -0.32716167 -4.9782429 2
2.7797461 -0.31134987 -4.9902997 1
2.8444769 -0.32518491 -4.9522042 1
3.0215242 -0.34096736 -4.9321337 2.375
3.2711132 -0.30251431 -4.9227424 13.25
-1.9163704 -0.25387669 -4.9235306 1.8333334
-1.8034059 -0.20560002 -4.9946628 10
-1.7315931 -0.2660042 -4.9839106 14.333334
2.9825091 -0.27493954 -4.9913435 1
3.0444615 -0.27970731 -4.9275188 1
3.1602731 -0.28647995 -4.9385285 2.5
3.2449932 -0.25838792 -4.9788208 2.125
3.3217983 -0.24852228 -4.9309888 0
3.4826078 -0.2350602 -4.9186935 6.5
3.769989 -0.21354389 -4.914247 8
3.8028474 -0.2150647 -4.9752789 6.5
-2.2120171 -0.11405123 -4.9293861 1.4375
-2.1448689 -0.13253659 -4.9320793 10.458333
-2.0703514 -0.16308856 -4.9035354 8
-1.8794085 -0.19277287 -4.9984345 13
3.6862476 -0.19450855 -4.9214158 8
3.9543159 -0.15054083 -4.9422617 8
4.021245 -0.13178869 -4.9456511 6
-2.2473228 -0.057289809 -4.9516959 2
-2.1951118 -0.089629889 -4.9221454 14.75
-2.0419967 -0.088003635 -4.9971251 11
4.1957636 -0.018589735 -4.9747744 2
4.2791367 -0.031625569 -4.93086 14
-2.660867 0.072700381 -4.9821405 0.5
-2.5779638 0.092529878 -4.9510403 4.875
-2.3000448 0.034813404 -4.9968882 12
4.1677599 0.0050923824 -4.9644113 6
4.380271 0.067295611 -4.983531 3
-2.6555638 0.13868287 -4.9407144 4.5
-2.5815091 0.16184187 -4.9826455 13
4.382905 0.17554593 -4.9434648 8
4.4655175 0.16057292 -4.9997425 15
4.5270472 0.16695324 -4.9786181 4
-2.7433925 0.21581694 -4.9683504 6.0500002
4.4637828 0.22219384 -4.9748988 5.7999997
4.5538044 0.26970416 -4.9788876 6.375
-2.8832154 0.37459457 -4.9285769 6.5999999
-2.7293708 0.30902576 -4.9813657 13
4.53163 0.30197001 -4.9835968 8
4.7474055 0.34041551 -4.9259405 7.0357141
-3.0149784 0.47137225 -4.9219055 4.8333335
-2.9407918 0.41398019 -4.9571042 8.3625002
4.7567987 0.42088735 -4.931386 9
4.8310442 0.49506122 -4.9476209 5
-3.0078907 0.5010761 -4.9344711 5.8571429
-2.9660246 0.51304662 -4.918313 1
4.8507004 0.51465315 -4.9694934 9
4.9346442 0.57021683 -4.9489045 6.3333335
-3.1377571 0.65270215 -4.9398046 5
-3.0911255 0.64357924 -4.9698467 12
4.99968 0.6185146 -4.9925351 10
5.101265 0.66135168 -4.9086018 8.5
-3.2833984 0.78352517 -4.9680042 7.3809524
5.1804161 0.75496244 -4.9846063 8
5.2846127 0.72931236 -4.9358234 8.5
-4.9901471 0.80781364 -4.9740605 6.5
-3.3383389 0.83999455 -4.9316444 7.909091
-3.2579596 0.83375239 -4.9170704 2.6666667
5.2639055 0.82830256 -4.9792013 7
-3.4272785 0.95353466 -4.9537945 8.2222223
-3.3769372 0.93165523 -4.9708381 7.8333335
5.3621893 0.90567452 -4.9830437 9
5.5168886 0.9773708 -4.9388342 10
-5.0864506 1.0447024 -4.9335189 7
-3.5548105 1.0936322 -4.9202442 11
-3.4742362 1.0115799 -4.9781771 8
5.6521702 1.0764862 -4.9271388 9.333333
-3.6943357 1.1707406 -4.9525609 8.333333
-3.5618901 1.1163576 -4.9585476 9.5
5.797637 1.1318905 -4.9358182 9
5.8595791 1.1672543 -4.9310656 11.501688
5.9646015 1.1619998 -4.9108233 11
6.1024652 1.2832403 -4.9084053 12
-3.7244892 1.3165377 -4.9206915 12.875
6.1619563 1.3058043 -4.9503217 10.5
6.2226992 1.3386689 -4.9378681 11
6.3042598 1.385016 -4.9856091 9
-4.9136949 1.4424559 -4.9601827 10
6.3649473 1.4240406 -4.9277411 0
-4.0235806 1.5462455 -4.9327488 11.75
6.6415977 1.5459579 -4.935576 7.3333335
-4.1198163 1.6293957 -4.9658904 13
-4.0900574 1.6245759 -4.9961205 13.166666
6.7468338 1.6111579 -4.9408007 4
6.8225808 1.6580567 -4.9488912 0
-4.3320675 1.7408667 -4.9781365 10.5
-4.2439895 1.7443761 -4.9667997 14.666667
6.921597 1.7393303 -4.9271264 11.666667
-4.4504347 1.8902851 -4.9193039 13
-4.3667984 1.8287801 -4.9460106 12.5
7.0307064 1.8156173 -4.9637074 11
-4.6935148 1.9849164 -4.9214272 13
7.1602502 1.9292086 -4.9612603 11.333333
7.2351484 1.9524879 -4.9434743 2.2
7.328949 1.9402212 -4.9222498 8
-4.6329508 2.064718 -4.9355707 14.2
7.2760687 2.0008521 -4.9771991 12
7.5847645 2.0209038 -4.986568 3
7.8180733 2.0862737 -4.9542108 4
8.1757784 2.0764046 -4.9109898 7
-4.7225895 2.164609 -4.9725475 13.5
8.1349316 2.1440601 -4.9024534 14
8.247365 2.149533 -4.9380465 11
-4.8507719 2.2592208 -4.9610567 14.8
8.9762325 2.2931492 -4.9220033 12
-5.0213165 2.3534086 -4.9418688 14
9.0054712 2.3732662 -4.9224253 0
-5.0124321 2.487211 -4.9477983 15
-4.9863482 2.438906 -4.9429159 15
9.0743551 2.4721811 -4.9435048 2
-5.1828437 2.5336261 -4.9327021 13.25
9.0527573 2.6904869 -4.9427443 1
9.1508379 2.6318328 -4.9627028 15
-5.2498255 2.7305365 -4.9564176 11.5
-5.310719 2.8996849 -4.953052 8
9.0693626 2.8178034 -4.9304533 15
-5.503757 3.1148019 -4.9929347 15
-5.4239388 3.285527 -4.9996538 11
9.1699476 3.6052933 -4.950058 1
8.5330973 4.4957728 -4.9981914 7
8.5555601 4.5787139 -4.9791641 6
8.5672464 4.7506599 -4.9517231 7
8.6268368 4.7506962 -4.9914517 6
